3.410874 -4.420230 81.191559
3.406223 -4.395806 81.215126
3.403322 -4.372609 81.261787
3.400615 -4.347730 81.277557
3.392488 -4.325037 81.334595
-1.300839 3.433700 89.556717
-1.303366 3.463319 89.588989
-1.308791 3.493304 89.630127
-1.311342 3.522415 89.648331
-1.314896 3.551833 89.674026
-1.321669 3.581900 89.715546
-1.315224 3.609751 89.701385
-1.327696 3.670221 89.790283
-1.330117 3.701103 89.849411
-1.334557 3.729896 89.857315
-1.337881 3.760399 89.906006
-1.342885 3.790930 89.954597
-1.350790 3.823596 90.052719
-1.356153 3.881490 90.072113
-1.356737 3.911667 90.109924
-1.359687 3.940349 90.113014
-1.365834 3.969858 90.134766
-1.364893 3.998402 90.134544
-1.371247 4.027897 90.155533
-1.372100 4.056287 90.151718
-1.373661 4.085221 90.159943
-1.376511 4.113769 90.159592
-1.373752 4.141822 90.148476
-1.373752 4.169922 90.138550
-1.378862 4.200344 90.178543
-1.378908 4.228563 90.171104
-1.374233 4.256663 90.161217
-1.378151 4.285885 90.175018
-1.373051 4.312897 90.142517
-1.373234 4.341090 90.134918
5.476241 -5.786310 80.909012
5.476200 -5.760833 80.910545
5.467745 -5.739071 80.964302
4.942274 -5.478912 80.897430
4.942204 -5.331399 80.989586
4.937333 -5.307904 81.022049
5.078126 -5.396575 83.586670
5.092498 -5.363694 83.486771
5.416032 -5.195009 81.266342
5.410974 -5.169713 81.272827
5.408582 -5.145902 81.302841
5.680418 -5.809252 81.233055
5.678140 -5.784779 81.249985
5.677186 -5.757478 81.227295
5.684100 -5.735274 81.276657
5.683398 -5.711002 81.296959
5.686210 -5.684872 81.290955
5.680507 -5.660905 81.315811
5.686866 -5.636096 81.328972
5.689243 -5.610622 81.332573
5.680377 -5.587767 81.374115
5.680627 -5.563273 81.392242
5.677469 -5.536696 81.379936
5.670440 -5.511249 81.384117
5.672726 -5.484596 81.370628
5.678827 -5.459916 81.386444
5.673470 -5.435914 81.412399
5.672315 -5.411111 81.426620
5.676535 -5.386467 81.443489
5.675624 -5.361529 81.455971
5.675205 -5.333629 81.423416
5.677473 -5.309814 81.453201
5.677128 -5.286376 81.489052
5.679030 -5.260347 81.485207
5.673412 -5.236507 81.515251
5.673547 -5.210163 81.506546
5.672515 -5.186028 81.532455
5.666149 -5.164741 81.603500
4.468231 -2.941946 90.251602
4.468712 -2.913094 90.242897
4.470263 -2.883786 90.219742
4.471706 -2.854558 90.198669
4.473645 -2.825606 90.185974
4.475294 -2.795756 90.144089
4.478254 -2.766456 90.119240
4.480296 -2.737712 90.112198
4.481244 -2.708107 90.076332
4.483054 -2.679004 90.056610
4.486267 -2.649525 90.023666
4.487084 -2.620772 90.014954
4.485812 -2.591988 90.004921
4.487286 -2.563382 90.000961
4.485302 -2.534252 89.978271
4.487987 -2.505000 89.950729
4.490042 -2.476161 89.937576
4.490076 -2.417966 89.891045
4.488228 -2.388821 89.865158
4.492227 -2.360054 89.853088
4.489586 -2.331473 89.847824
4.491945 -2.302364 89.821869
4.491418 -2.273319 89.797813
4.495666 -2.244339 89.775742
4.496927 -2.215700 89.766907
4.498408 -2.187405 89.771965
4.498333 -2.158037 89.732574
4.499270 -2.129438 89.724495
4.498196 -2.100806 89.714752
4.497239 -2.071651 89.682190
4.500114 -2.043350 89.686157
5.187011 -5.535521 80.979523
5.188622 -5.509262 80.970123
5.196169 -5.480366 80.921837
5.183757 -5.460093 81.000664
5.182866 -5.409085 81.004318
5.180089 -5.334557 81.040085
5.173902 -5.310427 81.063065
5.169902 -5.288774 81.124252
5.166562 -5.238988 81.148247
5.204370 -5.783670 80.867920
5.202103 -5.759238 80.883957
5.199924 -5.730904 80.845154
5.200790 -5.706390 80.860138
5.199239 -5.682181 80.879578
5.199184 -5.658534 80.907227
5.194759 -5.630044 80.865593
5.189123 -5.557478 80.926285
5.166295 -5.261002 81.091827
4.803684 -5.390209 83.485619
5.156337 -5.185674 81.117493
5.151721 -5.161636 81.143051
5.145302 -5.136989 81.159233
5.582790 -5.797533 81.067596
5.582490 -5.772152 81.071152
5.573856 -5.749665 81.115356
5.571922 -5.727370 81.162819
5.532778 -5.205864 81.437469
5.534744 -5.177302 81.393570
5.526959 -5.157254 81.483505
5.600388 -3.666232 85.815918
5.606843 -3.638840 85.810577
5.609173 -3.608817 85.742645
4.811018 -3.792052 91.463318
4.812909 -3.757783 91.334190
4.813192 -3.726335 91.272072
4.818404 -3.695289 91.218971
4.820974 -3.664522 91.171951
4.823179 -3.634580 91.144867
4.825079 -3.603560 91.090118
4.830590 -3.570817 90.990601
4.825249 -3.542721 91.008728
4.833420 -3.511469 90.945549
4.829509 -3.481949 90.926430
4.832154 -3.451657 90.886742
4.834990 -3.421150 90.840683
4.838295 -3.391710 90.822388
4.837301 -3.360819 90.764587
4.840258 -3.331195 90.740334
4.841469 -3.300748 90.693008
4.842540 -3.271374 90.674622
4.846398 -3.242262 90.663208
4.845314 -3.212298 90.627556
4.847282 -3.182995 90.610107
4.849270 -3.153627 90.590439
4.849860 -3.123405 90.545662
4.850641 -3.094315 90.533203
4.852591 -3.064704 90.505104
4.853034 -3.035331 90.483566
4.857863 -3.005394 90.444695
4.856520 -2.975944 90.419815
2.949236 -5.077908 80.613083
2.950351 -5.054466 80.646240
2.943281 -5.029580 80.656509
2.934898 -5.006607 80.697708
2.938786 -4.980400 80.687012
2.927212 -4.958059 80.739082
2.936833 -4.929567 80.691132
2.930555 -4.907794 80.753128
2.938981 -4.879672 80.710876
2.927313 -4.857004 80.758698
2.929635 -4.835128 80.820374
2.925891 -4.808826 80.808311
2.915986 -4.784809 80.834656
2.920159 -4.759746 80.843620
2.911866 -4.734689 80.852692
2.905911 -4.710865 80.883072
2.905152 -4.685348 80.884575
2.906575 -4.660853 80.903854
2.897840 -4.636651 80.928375
2.890297 -4.613420 80.970230
2.896015 -4.591435 81.034622
2.887110 -4.568563 81.083908
2.886614 -4.543106 81.087677
2.879322 -4.493925 81.126572
2.877424 -4.468872 81.137970
2.874233 -4.444199 81.156433
2.868395 -4.420277 81.188866
2.868106 -4.394679 81.190765
2.867168 -4.369268 81.196182
2.869343 -4.342971 81.185112
2.866290 -4.324252 81.316338
4.512125 -1.102476 89.371529
4.515145 -1.073921 89.349945
4.515101 -1.045854 89.368835
4.516393 -1.017686 89.379921
4.514381 -0.961878 89.453125
4.517298 -0.933470 89.444778
4.512563 -0.905481 89.477341
4.511494 -0.877485 89.511086
4.509336 -0.849421 89.540176
4.507820 -0.820818 89.512360
4.507482 -0.792825 89.551552
4.505241 -0.764269 89.527733
4.506822 -0.735879 89.522385
4.510290 -0.707432 89.509277
4.508254 -0.679156 89.517593
4.509367 -0.650933 89.534019
4.509439 -0.622408 89.508453
4.510140 -0.594148 89.520599
4.509821 -0.565676 89.500198
4.510599 -0.537297 89.493126
4.509838 -0.508913 89.484367
4.511762 -0.480452 89.460312
4.511746 -0.452098 89.454544
4.516884 -0.423605 89.418945
4.515476 -0.395217 89.401566
4.519599 -0.366662 89.340942
4.524199 -0.338255 89.309410
4.528443 -0.309504 89.173409
4.529968 -0.281071 89.110245
4.533608 -0.252669 89.044357
4.539048 -0.224398 89.013687
-1.107757 4.369665 90.136902
-1.108664 4.398976 90.152374
-1.109075 4.428600 90.174004
-1.107898 4.455900 90.148338
-1.107639 4.484302 90.145157
-1.107378 4.513257 90.153076
-1.105141 4.540838 90.133606
-1.109032 4.570711 90.159561
-1.108700 4.599266 90.159401
-1.107228 4.627805 90.158920
-1.107556 4.657139 90.173813
-1.106479 4.686226 90.183792
-1.111159 4.716494 90.216156
-1.115424 4.746583 90.244797
-1.111850 4.774279 90.227890
-1.118985 4.805569 90.278618
-1.119918 4.835252 90.298813
-1.131274 4.869732 90.407730
-1.134071 4.901718 90.469376
-1.140609 4.932527 90.508698
-1.146721 4.965379 90.584839
-1.151051 4.995675 90.613770
-1.149996 5.023518 90.598129
-1.158290 5.055366 90.654434
-1.166190 5.088446 90.732071
-1.170684 5.120210 90.785522
-1.175141 5.151794 90.835220
-1.173606 5.181394 90.849579
5.546801 -3.682552 88.155838
5.075080 -3.769199 91.613480
5.072602 -3.737857 91.556122
5.078174 -3.705863 91.481842
5.085830 -3.674673 91.426399
5.084435 -3.641584 91.322403
5.085083 -3.610674 91.271835
5.090826 -3.579022 91.201569
5.091708 -3.549374 91.181595
5.097968 -3.487744 91.079758
5.098732 -3.457484 91.042168
5.100791 -3.426341 90.980522
5.103179 -3.396625 90.956001
5.102178 -3.366370 90.916527
5.103665 -3.337717 90.919983
5.104240 -3.306882 90.863571
5.105783 -3.277736 90.852974
5.103124 -3.246608 90.786766
5.103335 -3.217460 90.775192
5.105876 -3.187320 90.735268
5.105752 -3.158320 90.727287
5.107767 -3.129250 90.717171
5.108080 -3.099004 90.672432
5.110912 -3.069870 90.659729
5.112058 -3.040200 90.630798
5.115036 -3.010322 90.595070
5.118636 -2.980970 90.574661
4.433336 -4.306086 81.469971
4.428591 -4.280153 81.467194
4.430960 -4.255643 81.491669
4.431149 -4.230398 81.502266
4.424001 -4.207383 81.556152
4.421626 -4.182949 81.583084
4.418916 -4.158363 81.607361
4.415030 -4.134686 81.649887
4.410542 -4.111198 81.696686
4.409022 -4.086378 81.717468
4.401738 -4.063189 81.771301
4.400089 -4.038923 81.804062
4.390901 -4.016939 81.883682
4.387837 -3.993898 81.942711
4.378188 -3.969921 81.983131
4.370966 -3.946576 82.037247
4.364762 -3.925236 82.134033
4.359267 -3.902412 82.200844
4.344676 -3.879902 82.275162
4.341544 -3.854714 82.293404
4.331224 -3.834103 82.410194
4.327508 -3.808728 82.425568
4.318556 -3.786484 82.509308
4.314200 -3.761666 82.537811
4.301199 -3.740331 82.643555
4.294187 -3.717131 82.709381
4.295197 -3.693025 82.755875
4.282537 -3.672624 82.886520
4.278613 -3.649877 82.965813
4.279379 -3.627036 83.044144
4.275152 -3.611043 83.281448
4.271816 -3.591246 83.433922
-1.314313 2.495781 88.490692
-1.316244 2.524387 88.510796
-1.318320 2.552557 88.515289
-1.327620 2.583004 88.597832
-1.328267 2.611236 88.603439
-1.331288 2.640830 88.654617
-1.339960 2.670212 88.697693
-1.339082 2.699514 88.737259
-1.339431 2.727925 88.746979
-1.342181 2.757146 88.782646
-1.351070 2.787930 88.867332
-1.352621 2.816240 88.872307
-1.356995 2.845706 88.913277
-1.367822 2.876330 88.989273
-1.375567 2.907222 89.071983
-1.377813 2.936556 89.105881
-1.379052 2.965705 89.133553
-1.381739 2.994525 89.150879
-1.386403 3.023894 89.184113
-1.391390 3.054285 89.246567
-1.395464 3.083749 89.281082
-1.406089 3.113853 89.333221
-1.407530 3.144013 89.386116
-1.408388 3.171523 89.363373
-1.412735 3.200687 89.387238
-1.415299 3.229462 89.399841
-1.420223 3.259470 89.446136
-1.421375 3.288555 89.466507
-1.434082 3.320020 89.550674
-1.432554 3.347880 89.537048
-1.432707 3.376922 89.555016
-1.439673 3.407111 89.602798
5.082896 -4.321285 81.762077
5.074895 -4.298334 81.817726
5.077381 -4.273290 81.834076
5.073345 -4.247470 81.835609
5.067325 -4.224955 81.901199
5.065126 -4.199636 81.912971
5.061336 -4.177785 81.992905
5.056356 -4.151803 81.992294
5.048195 -4.128154 82.037979
5.041224 -4.106155 82.117264
5.035743 -4.079521 82.104309
5.026531 -4.056572 82.165764
5.021660 -4.033957 82.234871
5.014314 -4.007248 82.220886
5.005682 -3.985206 82.303055
5.005848 -3.960033 82.321304
4.997375 -3.936308 82.370041
4.994502 -3.912794 82.423874
4.986574 -3.888748 82.467148
4.983054 -3.866145 82.541840
4.986228 -3.839464 82.529968
4.974616 -3.817044 82.609993
4.969106 -3.793105 82.658096
4.963220 -3.768261 82.687019
4.961737 -3.743078 82.708893
4.953481 -3.720185 82.781952
4.946699 -3.697148 82.852829
4.939972 -3.673004 82.899773
4.926703 -3.649217 82.955421
4.917597 -3.628715 83.087128
4.913014 -3.603856 83.120331
4.915131 -3.580230 83.182693
3.923273 -4.300753 81.365723
3.931341 -4.273343 81.334328
3.921330 -4.251772 81.414185
3.922494 -4.225824 81.410797
3.915574 -4.201703 81.442711
3.913054 -4.178099 81.485138
3.909989 -4.153552 81.509583
3.900006 -4.129860 81.551178
3.892476 -4.106618 81.602234
3.884452 -4.084013 81.666695
3.874130 -4.061998 81.743805
3.870575 -4.037737 81.776474
3.862957 -4.014885 81.838257
3.857403 -3.990527 81.869980
3.854666 -3.966664 81.912331
3.843251 -3.946401 82.029999
3.834065 -3.924294 82.110680
3.827358 -3.901228 82.172264
3.822772 -3.878278 82.237137
3.814646 -3.854542 82.286087
3.807742 -3.831657 82.354004
3.794892 -3.808377 82.414246
3.787161 -3.783729 82.445572
3.773102 -3.757557 82.443855
3.762525 -3.731661 82.448242
3.756408 -3.707241 82.485550
2.952633 -3.963447 88.803406
3.790925 -3.709201 83.708176
3.790646 -3.682811 83.710640
3.793639 -3.663134 83.866798
2.967380 -3.855248 88.901466
5.662375 -1.110239 90.017929
5.662644 -1.081497 89.997635
5.665223 -1.052878 89.986755
5.663659 -1.024412 89.988647
5.665243 -0.996021 89.997498
5.670239 -0.967321 89.978210
5.671144 -0.938832 89.977859
5.668290 -0.910290 89.972168
5.671587 -0.881872 89.978943
5.671914 -0.853208 89.960144
5.674015 -0.824659 89.952560
5.675091 -0.796356 89.972336
5.680233 -0.767608 89.941513
5.680567 -0.739353 89.968094
5.677545 -0.710871 89.968147
5.676724 -0.682611 89.997467
5.675765 -0.654040 89.986450
5.672180 -0.625581 89.990631
5.672024 -0.597244 90.013672
5.669780 -0.568868 90.032608
5.669115 -0.540542 90.062164
5.667820 -0.512114 90.077118
5.665975 -0.455302 90.121094
5.662117 -0.426763 90.119324
5.664170 -0.398266 90.127182
5.661397 -0.369765 90.134979
5.661516 -0.341187 90.123741
5.658823 -0.312649 90.122147
5.657837 -0.284035 90.096130
5.664099 -0.255272 90.012375
5.667163 -0.226576 89.934082
-2.013685 3.450723 89.996696
-2.018170 3.480953 90.041107
-2.023911 3.511185 90.084854
-2.029099 3.541024 90.117874
-2.031230 3.570067 90.130310
-2.041518 3.599891 90.162056
-2.041679 3.629743 90.194031
-2.045635 3.659039 90.211792
-2.051371 3.688096 90.223434
-2.051972 3.717117 90.234032
-2.051322 3.745411 90.226944
-2.050250 3.773494 90.214935
-2.051138 3.803131 90.239960
-2.051994 3.831464 90.233917
-2.050485 3.860209 90.237602
-2.050447 3.889098 90.244553
-2.052742 3.917699 90.244759
-2.049095 3.946295 90.244873
-2.051759 3.975440 90.257446
-2.047551 4.002467 90.222092
-2.049996 4.030878 90.218178
-2.045073 4.057727 90.179665
-2.042174 4.085072 90.152603
-2.045361 4.114428 90.169991
-2.045349 4.142520 90.159592
-2.048366 4.170981 90.157333
-2.047111 4.199104 90.147842
-2.046311 4.227498 90.144264
-2.044015 4.255044 90.122810
-2.042883 4.283668 90.124268
-2.041990 4.312098 90.121689
-2.043073 4.341821 90.145920
5.119766 -2.921357 90.504402
5.119568 -2.891419 90.464119
5.120920 -2.862895 90.467690
5.119153 -2.832686 90.417557
5.120014 -2.803658 90.404480
5.120695 -2.774820 90.397324
5.123194 -2.745209 90.364624
5.126322 -2.715848 90.339539
5.127818 -2.686654 90.319496
5.128046 -2.658091 90.320473
5.126462 -2.628901 90.299934
5.126198 -2.599655 90.276985
5.132050 -2.569397 90.218079
5.131925 -2.541487 90.241119
5.132214 -2.511868 90.203369
5.135688 -2.482167 90.161774
5.135925 -2.453719 90.165222
5.136979 -2.424353 90.134659
5.137405 -2.395517 90.123283
5.140115 -2.366347 90.098946
5.140049 -2.337351 90.080673
5.138099 -2.308259 90.058220
5.139833 -2.279834 90.061546
5.140297 -2.250783 90.039894
5.140575 -2.221559 90.010742
5.140469 -2.193074 90.011108
5.140668 -2.164471 90.006630
5.144030 -2.135396 89.982147
5.143359 -2.106629 89.970108
5.143591 -2.049032 89.942322
4.273566 -3.571154 83.581772
4.277605 -3.548291 83.666550
4.277401 -3.521886 83.668427
3.616690 -3.804358 91.055908
3.617817 -3.775264 91.049423
3.620921 -3.746635 91.054153
3.624780 -3.716075 91.011688
3.626338 -3.686974 91.004539
3.629700 -3.656708 90.968330
3.632304 -3.625182 90.899940
3.633017 -3.595851 90.885902
3.637097 -3.564572 90.822067
3.635396 -3.534852 90.797142
3.640928 -3.503095 90.719185
3.644410 -3.472944 90.681808
3.644742 -3.444323 90.684052
3.649096 -3.413447 90.626541
3.649805 -3.384293 90.614105
3.655397 -3.354505 90.584381
3.657996 -3.324306 90.542915
3.654027 -3.294992 90.525009
3.656119 -3.264155 90.464630
3.663129 -3.234404 90.433563
3.661220 -3.206016 90.440338
3.662999 -3.176168 90.405701
3.667958 -3.146165 90.366028
3.668654 -3.116965 90.348846
3.674169 -3.086750 90.301720
3.672312 -3.058821 90.321121
3.672883 -3.028660 90.274399
3.674661 -2.999394 90.253716
3.675850 -2.969798 90.222626
5.021061 -2.018176 89.834976
5.016259 -1.989761 89.836029
5.017799 -1.960868 89.815292
5.016212 -1.932743 89.829559
5.021107 -1.903714 89.801712
5.022704 -1.874815 89.779221
5.020910 -1.846894 89.803528
5.021833 -1.817445 89.753235
5.021735 -1.789060 89.754662
5.021385 -1.760322 89.738159
5.024202 -1.731718 89.728065
5.021536 -1.674344 89.697952
5.022958 -1.645691 89.683960
5.021136 -1.616924 89.663155
5.021667 -1.588641 89.668915
5.022817 -1.560249 89.668701
5.023415 -1.531417 89.642639
5.026179 -1.502880 89.633301
5.025954 -1.474533 89.635040
5.029320 -1.445810 89.613617
5.033261 -1.416953 89.582932
5.036535 -1.388553 89.580429
5.034207 -1.360364 89.591560
5.033311 -1.331661 89.568771
5.030745 -1.303342 89.571175
5.032413 -1.274772 89.556274
5.029425 -1.246567 89.566788
5.030405 -1.217928 89.545975
5.032419 -1.189620 89.549103
5.034452 -1.160993 89.527817
5.036308 -1.132604 89.524239
5.181985 -4.109022 82.175613
5.161920 -4.034182 82.240494
5.158014 -4.010685 82.292450
5.153632 -3.986073 82.322044
5.146566 -3.963475 82.393852
5.142704 -3.936007 82.364799
5.135605 -3.914301 82.456650
5.134161 -3.890065 82.496155
5.122916 -3.866364 82.547516
5.118628 -3.842999 82.606888
5.106288 -3.794702 82.693878
5.098368 -3.771656 82.762466
5.089157 -3.747248 82.801910
5.081959 -3.723236 82.850754
5.076513 -3.699655 82.909935
5.066505 -3.677145 82.994102
5.052614 -3.629477 83.105545
5.053235 -3.605472 83.158600
5.044106 -3.580364 83.186737
-0.975785 4.369995 90.144501
-0.974675 4.397774 90.128525
-0.979074 4.427886 90.160233
-0.977493 4.455886 90.148849
-0.974228 4.483472 90.129303
-0.973314 4.511425 90.117264
-0.971316 4.540295 90.123642
-0.974006 4.569044 90.127502
-0.973650 4.596835 90.112564
-0.975199 4.626094 90.126358
-0.979632 4.655402 90.140953
-0.979789 4.684132 90.144257
-0.976365 4.712485 90.140327
-0.982047 4.743035 90.178162
-0.985855 4.773394 90.211914
-0.984686 4.803162 90.234238
-0.991226 4.834567 90.286804
-0.997523 4.866438 90.347397
-0.997613 4.896794 90.379349
-1.003490 4.927079 90.409584
-1.009913 4.959510 90.478645
-1.010477 4.991300 90.535263
-1.013665 5.021959 90.570862
-1.021492 5.053131 90.615196
-1.024348 5.084122 90.655846
-1.030180 5.116322 90.717461
-1.041312 5.149297 90.792007
-1.042772 5.178497 90.799591
-1.238384 4.369672 90.136246
-1.245666 4.400254 90.177727
-1.241312 4.427326 90.147263
-1.238258 4.455064 90.130646
-1.243974 4.513169 90.150490
-1.241163 4.540693 90.129913
-1.242720 4.570807 90.160629
-1.250874 4.630005 90.200882
-1.249204 4.658312 90.195648
-1.253101 4.688421 90.225128
-1.250955 4.715500 90.196312
-1.252465 4.745689 90.226959
-1.255803 4.776189 90.263107
-1.265301 4.810075 90.362366
-1.259183 4.837035 90.331223
-1.266722 4.869171 90.396454
-1.275270 4.902306 90.479340
-1.280714 4.964536 90.568604
-1.287571 4.994843 90.597809
-1.298007 5.027539 90.669716
-1.303888 5.059155 90.721466
-1.301606 5.089103 90.742935
-1.302184 5.119207 90.766899
-1.308711 5.152503 90.846870
-1.315697 5.186188 90.932739
5.078269 -5.774879 80.743347
5.073575 -5.751608 80.775131
5.074672 -5.724161 80.748421
5.072057 -5.704023 80.824905
5.070272 -5.678622 80.827255
5.063101 -5.652787 80.823364
5.059419 -5.629173 80.851357
5.060658 -5.581143 80.896637
5.064680 -5.553669 80.869324
5.057744 -5.457059 80.954201
5.058863 -5.431000 80.947578
5.057079 -5.408267 80.990616
5.051820 -5.384993 81.025932
5.051404 -5.359966 81.035141
5.043475 -5.280139 80.990547
5.036969 -5.258333 81.049332
5.022792 -5.188858 81.165894
5.018200 -5.162420 81.154015
5.023521 -5.134451 81.117935
4.695558 -5.769269 80.660324
4.693836 -5.742090 80.637001
4.690273 -5.722345 80.718262
4.688624 -5.694494 80.685493
4.682995 -5.669905 80.698792
4.680635 -5.649089 80.766159
4.678401 -5.627393 80.821541
4.674741 -5.597444 80.758392
4.675093 -5.572812 80.771744
4.667614 -5.550021 80.811935
4.665853 -5.525297 80.824303
4.666005 -5.502489 80.864944
4.666779 -5.477671 80.876320
4.662666 -5.451080 80.861481
4.666560 -5.425784 80.865875
4.661742 -5.401905 80.891426
4.657526 -5.380915 80.960678
4.648508 -5.354554 80.949409
4.651639 -5.328099 80.936707
4.642592 -5.302436 80.935898
4.642011 -5.281418 81.006332
4.648681 -5.252886 80.961777
4.653147 -5.203529 80.991173
4.646515 -5.182730 81.066673
-1.776431 4.369902 90.137718
-1.773219 4.397621 90.120529
-1.772806 4.425925 90.115463
-1.768099 4.454160 90.109085
-1.767934 4.481762 90.090042
-1.769104 4.510244 90.088806
-1.774378 4.540900 90.130707
-1.776423 4.570002 90.141464
-1.772744 4.597625 90.123085
-1.771848 4.628079 90.160103
-1.770917 4.658119 90.188644
-1.786792 4.692459 90.299454
-1.782882 4.721367 90.305191
-1.782908 4.751459 90.333298
-1.790057 4.782760 90.383896
-1.800158 4.814508 90.442276
-1.804495 4.845340 90.482834
-1.811728 4.877698 90.551285
-1.821524 4.908267 90.585892
-1.819680 4.938468 90.613403
-1.828679 4.970808 90.679520
-1.833474 5.003496 90.751236
-1.841525 5.034601 90.793587
-1.844618 5.064943 90.821762
-1.851601 5.096435 90.870094
-1.861935 5.129665 90.948669
-1.861405 5.158956 90.957024
-1.870628 5.191102 91.015259
-1.642159 4.369796 90.136353
-1.642985 4.397401 90.116852
-1.643206 4.427186 90.141968
-1.644723 4.455377 90.134476
-1.641462 4.483464 90.125031
-1.639972 4.511414 90.112976
-1.640461 4.541170 90.136917
-1.640895 4.568837 90.119316
-1.637716 4.596836 90.108475
-1.639304 4.625658 90.113770
-1.639710 4.655482 90.138420
-1.649260 4.688291 90.220131
-1.652711 4.719054 90.261780
-1.653837 4.747726 90.263153
-1.658858 4.781096 90.353294
-1.662023 4.811910 90.394348
-1.671566 4.844009 90.458847
-1.680085 4.876163 90.523643
-1.685012 4.907402 90.570801
-1.689654 4.938810 90.620514
-1.693377 4.969291 90.652725
-1.706797 5.002602 90.735870
-1.703475 5.031971 90.747040
-1.711369 5.065604 90.834488
-1.713633 5.096241 90.867554
-1.714158 5.125590 90.877426
-1.721789 5.156644 90.917198
-1.735384 5.190338 91.002762
6.225956 -4.073733 83.595093
6.492733 -4.191710 87.147942
6.236483 -3.996632 83.642540
2.522073 -1.105823 89.612892
2.527142 -1.077272 89.598419
2.528633 -1.048721 89.583130
2.531472 -1.020057 89.557159
2.530725 -0.991659 89.553650
2.530688 -0.963266 89.550308
2.531753 -0.934800 89.539909
2.533275 -0.906313 89.526848
2.533509 -0.878043 89.534943
2.535231 -0.849676 89.533463
2.534887 -0.821163 89.515839
2.533090 -0.792767 89.510231
2.529505 -0.764579 89.528610
2.532059 -0.735957 89.495544
2.530058 -0.707589 89.492050
2.532321 -0.679075 89.469032
2.532215 -0.650807 89.477829
2.529380 -0.622484 89.479546
2.532761 -0.593996 89.456543
2.534656 -0.565614 89.448196
2.534542 -0.537324 89.454147
2.532253 -0.509093 89.471069
2.533632 -0.480657 89.451988
2.535717 -0.452316 89.449310
2.535828 -0.423900 89.430428
2.533968 -0.395641 89.444092
2.533731 -0.367332 89.447914
2.534095 -0.338946 89.432327
2.532648 -0.310618 89.430260
2.530747 -0.282297 89.429947
2.531095 -0.253930 89.414017
2.531639 -0.225618 89.415329
2.862906 -4.299547 81.335907
2.858955 -4.276480 81.386902
2.852100 -4.252712 81.425064
2.854509 -4.226261 81.412071
2.844917 -4.203244 81.465393
2.838371 -4.179331 81.501907
2.838623 -4.154078 81.512650
2.836120 -4.129853 81.543793
2.830376 -4.106383 81.590317
2.829647 -4.081130 81.601807
2.825500 -4.058051 81.657150
2.820467 -4.034104 81.695641
2.816809 -4.010157 81.734619
2.806722 -3.987984 81.810463
2.810769 -3.963448 81.838593
2.797885 -3.942312 81.937637
2.793999 -3.918693 81.986130
2.786294 -3.896497 82.065186
2.779369 -3.874063 82.140274
2.773464 -3.851434 82.212219
2.774195 -3.826895 82.244148
2.763670 -3.806137 82.358246
2.755544 -3.783273 82.428047
5.896592 -5.152037 81.814796
5.899380 -5.128171 81.846985
5.893795 -5.101338 81.831802
5.886840 -5.078563 81.881813
5.882978 -5.028972 81.917831
5.881836 -5.002676 81.911606
6.082938 -5.095445 84.747536
6.071043 -5.073535 84.829277
6.069668 -4.992561 84.821526
6.065613 -4.966932 84.842102
-1.507795 4.368904 90.118774
-1.507383 4.397513 90.119965
-1.507987 4.426662 90.132141
-1.508728 4.454895 90.125580
-1.508721 4.484536 90.147415
-1.506331 4.511781 90.121140
-1.508979 4.541674 90.147713
-1.509784 4.570405 90.151070
-1.508337 4.597931 90.130745
-1.511797 4.627728 90.154930
-1.520615 4.658051 90.188927
-1.521229 4.687229 90.200516
-1.524828 4.716785 90.219185
-1.524409 4.748467 90.278053
-1.535785 4.781970 90.370590
-1.539200 4.813851 90.431595
-1.534928 4.842134 90.424728
-1.540133 4.872425 90.455139
-1.550323 4.905828 90.542618
-1.551834 4.936882 90.586029
-1.556182 4.966647 90.605392
-1.559003 4.997199 90.638817
-1.565416 5.030167 90.715378
-1.569632 5.060419 90.742416
-1.578364 5.092430 90.800484
-1.584269 5.123459 90.840485
-1.594282 5.156269 90.911423
-1.595171 5.186687 90.939667
4.568489 -4.311701 81.577103
4.567309 -4.284634 81.553391
4.565289 -4.261862 81.611618
4.564741 -4.235749 81.606232
4.554169 -4.211928 81.645126
4.552625 -4.187662 81.675858
4.550155 -4.161508 81.669937
4.537958 -4.139661 81.748932
4.533216 -4.115792 81.788773
4.533685 -4.090343 81.797577
4.528173 -4.066012 81.828949
4.525711 -4.041471 81.856499
4.521094 -4.018729 81.921051
4.516609 -3.993867 81.942963
4.507443 -3.971580 82.018265
4.505529 -3.948165 82.071190
4.493598 -3.927130 82.174522
4.486538 -3.902596 82.205589
4.477101 -3.879249 82.262222
4.470239 -3.857352 82.350594
4.464810 -3.832530 82.377327
4.457047 -3.809420 82.441437
4.452048 -3.786108 82.502045
4.448171 -3.762609 82.559418
4.437056 -3.739953 82.636162
4.432108 -3.717623 82.721283
4.425115 -3.694200 82.783112
4.418803 -3.670362 82.836456
4.414680 -3.647222 82.906464
4.410580 -3.626258 83.027267
4.405282 -3.608429 83.222137
4.404526 -3.588011 83.359734
-1.890242 2.509264 88.965775
-1.898584 2.538951 89.018410
-1.899010 2.567552 89.032272
-1.901962 2.596570 89.060150
-1.904316 2.626198 89.108078
-1.908090 2.654996 89.127136
-1.914087 2.684470 89.168259
-1.917971 2.714318 89.220833
-1.926475 2.744291 89.276337
-1.927654 2.772919 89.287460
-1.939410 2.802839 89.339462
-1.938353 2.830428 89.316948
-1.947906 2.860766 89.380692
-1.952610 2.890998 89.439941
-1.951851 2.918957 89.428429
-1.951796 2.948004 89.450165
-1.957403 2.976983 89.469360
-1.964912 3.007798 89.542892
-1.969447 3.036716 89.559151
-1.968176 3.064480 89.541321
-1.972111 3.094661 89.593842
-1.970016 3.122726 89.584686
-1.974181 3.152088 89.612549
-1.980826 3.183294 89.691879
-1.981041 3.212501 89.714005
-1.981502 3.241761 89.737206
-1.980232 3.271245 89.766190
-1.985641 3.300783 89.796051
-1.990101 3.331134 89.847359
-1.998588 3.361450 89.896835
-2.000074 3.391169 89.929672
-2.006896 3.420841 89.960709
5.884993 -4.977710 81.927238
5.877982 -4.954851 81.977737
5.869791 -4.880280 82.032013
5.867182 -4.856877 82.075035
5.862596 -4.782691 82.138824
5.865567 -4.754439 82.099823
5.865273 -4.728378 82.098373
5.854040 -4.707884 82.193893
5.852503 -4.681688 82.190567
5.852595 -4.655336 82.184486
5.853597 -4.630091 82.197990
5.847932 -4.607894 82.265961
5.843057 -4.558172 82.308151
5.835725 -4.531716 82.300629
5.843351 -4.503785 82.266266
5.842812 -4.484310 82.386642
5.839388 -4.459613 82.412003
5.838912 -4.433145 82.404778
5.842552 -4.408820 82.437569
5.846955 -4.381135 82.407593
5.424360 -3.676051 87.999374
4.944705 -3.732693 91.428741
4.951164 -3.701682 91.377716
4.952236 -3.669999 91.309158
4.952841 -3.637077 91.208443
4.958919 -3.576626 91.139542
4.963882 -3.544945 91.066895
4.966834 -3.514479 91.024483
4.964676 -3.486307 91.041229
4.965728 -3.452797 90.917786
4.967999 -3.393590 90.873734
4.969728 -3.363658 90.842285
4.969110 -3.333846 90.813538
4.968350 -3.304175 90.788139
4.970833 -3.273874 90.744896
4.973984 -3.244582 90.729111
4.977334 -3.215028 90.705612
4.981361 -3.185639 90.686432
4.980337 -3.154984 90.630486
4.979784 -3.126001 90.621979
4.979984 -3.096981 90.612244
4.984865 -3.066263 90.552216
4.987442 -3.036110 90.507904
4.986421 -3.007896 90.521049
4.986781 -2.978762 90.506485
4.599346 -2.943465 90.299347
4.602929 -2.914034 90.273178
4.601576 -2.885051 90.260483
4.601557 -2.856389 90.257675
4.602131 -2.826398 90.212387
4.601213 -2.797307 90.195229
4.602706 -2.767798 90.164093
4.604867 -2.738187 90.128937
4.602018 -2.709189 90.113403
4.602673 -2.679894 90.087601
4.604721 -2.652068 90.111145
4.608738 -2.622478 90.074677
4.609955 -2.592832 90.035385
4.610210 -2.564302 90.034424
4.614967 -2.533994 89.970383
4.613034 -2.505029 89.953018
4.614649 -2.476257 89.942291
4.615671 -2.448327 89.962212
4.618975 -2.418820 89.924049
4.619095 -2.390170 89.917175
4.619245 -2.361078 89.893341
4.621440 -2.332363 89.883453
4.621492 -2.302970 89.846848
4.622316 -2.274800 89.857597
4.623398 -2.245399 89.819458
4.622250 -2.187664 89.783890
4.624924 -2.158884 89.769112
4.623877 -2.130305 89.762344
4.627789 -2.101631 89.751396
4.628038 -2.072425 89.717056
4.627111 -2.043765 89.705750
3.658813 -5.751530 80.403137
3.661120 -5.726637 80.410919
3.653566 -5.703270 80.440231
3.659136 -5.678625 80.451805
3.650625 -5.655002 80.477921
3.653385 -5.629384 80.475853
3.648768 -5.604890 80.489853
3.650596 -5.579852 80.496170
3.647001 -5.556397 80.525475
3.645081 -5.532840 80.553558
3.637386 -5.509270 80.581673
3.645681 -5.481909 80.554474
3.643705 -5.457985 80.577682
3.643438 -5.433103 80.586899
3.638636 -5.407541 80.586075
3.631861 -5.384573 80.624046
3.634733 -5.360134 80.640305
3.629696 -5.335456 80.653076
3.632666 -5.310643 80.663971
3.624227 -5.287835 80.705498
3.628893 -5.260960 80.685143
3.625011 -5.235788 80.690796
3.613282 -5.212772 80.729813
3.615873 -5.186368 80.716614
3.604677 -5.164541 80.774757
3.606513 -5.138594 80.768806
3.607394 -5.115246 80.803864
5.195747 -3.550911 83.114845
5.362391 -3.632968 85.670319
5.367691 -3.601612 85.569710
4.548304 -3.814452 91.304581
4.551481 -3.784655 91.283051
4.551192 -3.753541 91.229172
4.558050 -3.718480 91.077850
4.560078 -3.688528 91.050201
4.562165 -3.659778 91.052032
4.567159 -3.627316 90.960831
4.571041 -3.596815 90.917740
4.574636 -3.565643 90.856857
4.573495 -3.536138 90.837746
4.577035 -3.505119 90.779167
4.577929 -3.475740 90.762405
4.578229 -3.445267 90.716553
4.579215 -3.415150 90.679398
4.580656 -3.385250 90.647430
4.577426 -3.356637 90.649620
4.579910 -3.327082 90.626236
4.582257 -3.297324 90.596909
4.583980 -3.267366 90.561478
4.583886 -3.238416 90.553589
4.587089 -3.208907 90.529816
4.589151 -3.178143 90.469917
4.588553 -3.149383 90.466431
4.589329 -3.119717 90.436646
4.592049 -3.091160 90.438759
4.594617 -3.060285 90.372490
4.593923 -3.031157 90.357002
4.595198 -3.003078 90.372772
4.598455 -2.972905 90.325302
5.060963 -3.550852 83.112465
5.074615 -3.523962 83.098862
4.420523 -3.808962 91.172272
4.421649 -3.779668 91.161850
4.427363 -3.747524 91.082047
4.429579 -3.686831 91.007347
4.437120 -3.655296 90.939606
4.436106 -3.625586 90.916458
4.440918 -3.593920 90.843590
4.443997 -3.564212 90.819397
4.441844 -3.536088 90.835419
4.445467 -3.503499 90.736198
4.445059 -3.474395 90.726242
4.443745 -3.445111 90.711395
4.446885 -3.414950 90.673058
4.449321 -3.384995 90.639542
4.451733 -3.354960 90.603333
4.455037 -3.324374 90.551514
4.452401 -3.294261 90.511688
4.453763 -3.265167 90.499466
4.456670 -3.235651 90.475258
4.456872 -3.207126 90.478523
4.457801 -3.177231 90.442863
4.463096 -3.147361 90.407318
4.460435 -3.118721 90.406677
4.462628 -3.088073 90.347389
4.466663 -3.058657 90.323341
4.465652 -3.030548 90.337738
4.467066 -3.000607 90.297348
4.471323 -2.970663 90.256104
5.163044 -1.105194 89.601685
5.160606 -1.076519 89.576035
5.160944 -1.048137 89.573982
5.164242 -1.019964 89.590256
5.165371 -0.991411 89.573174
5.167243 -0.963009 89.569115
5.165343 -0.934962 89.598640
5.164002 -0.906498 89.588959
5.162825 -0.878324 89.608154
5.158226 -0.850497 89.665154
5.155017 -0.822306 89.686592
5.155036 -0.793961 89.692093
5.158746 -0.765779 89.717163
5.152847 -0.737913 89.782379
5.151155 -0.709627 89.799881
5.151409 -0.681461 89.834686
5.149455 -0.653009 89.833160
5.150753 -0.624641 89.843597
5.148679 -0.596562 89.898560
5.145319 -0.568346 89.937172
5.148485 -0.539715 89.911140
5.146619 -0.511205 89.903275
5.147742 -0.482805 89.915024
5.149331 -0.454342 89.916061
5.148402 -0.425757 89.891220
5.148498 -0.397338 89.900475
5.147545 -0.368851 89.894562
5.147985 -0.340296 89.869759
5.149487 -0.311758 89.845184
5.147735 -0.283103 89.778702
5.154023 -0.254384 89.675591
5.157658 -0.225632 89.533134
5.921491 -2.033120 90.509140
5.920743 -2.004206 90.497299
5.918662 -1.975498 90.494537
5.916344 -1.946196 90.464035
5.918702 -1.917604 90.466202
5.916811 -1.888666 90.451859
5.921491 -1.859168 90.409821
5.919491 -1.830537 90.409317
5.921936 -1.801383 90.382576
5.918855 -1.772915 90.389816
5.920363 -1.743969 90.372688
5.921005 -1.715271 90.368011
5.922058 -1.686715 90.370728
5.923205 -1.658220 90.376923
5.925434 -1.629307 90.360123
5.924339 -1.600405 90.343338
5.923854 -1.572077 90.358940
5.925977 -1.543444 90.357315
5.925341 -1.514380 90.329895
5.924637 -1.485545 90.315308
5.922956 -1.456679 90.298233
5.921124 -1.428184 90.303970
5.920897 -1.399625 90.305725
5.921830 -1.371026 90.305023
5.925364 -1.342152 90.285858
5.925034 -1.313579 90.286461
5.924829 -1.285033 90.288956
5.924975 -1.256364 90.282799
5.923800 -1.227554 90.265953
5.925529 -1.198964 90.264816
5.925014 -1.170545 90.276886
5.925885 -1.141881 90.270248
4.501161 -2.014333 89.658386
4.504842 -1.985685 89.646500
4.505802 -1.956873 89.626747
4.506324 -1.927785 89.593582
4.503407 -1.899508 89.597641
4.504846 -1.871142 89.597595
4.503377 -1.842259 89.572411
4.504411 -1.813570 89.556061
4.505920 -1.784688 89.529510
4.508558 -1.756090 89.516571
4.511017 -1.727408 89.498825
4.511108 -1.699196 89.505249
4.512376 -1.670300 89.475311
4.512499 -1.641783 89.464905
4.514046 -1.613738 89.480362
4.511853 -1.584876 89.450256
4.515365 -1.556614 89.453537
4.514508 -1.527691 89.418289
4.516773 -1.500086 89.460236
4.515566 -1.471319 89.433212
4.516953 -1.442383 89.394730
4.518502 -1.414359 89.412216
4.518727 -1.386388 89.433914
4.522467 -1.357162 89.373947
4.521791 -1.328915 89.377144
4.519988 -1.300568 89.373672
4.520530 -1.271882 89.346252
4.519219 -1.243506 89.339752
4.515026 -1.215074 89.328888
4.511914 -1.187060 89.348907
4.511949 -1.158612 89.336632
4.512289 -1.130699 89.365875
5.245348 -2.953860 90.623611
5.247838 -2.923855 90.582825
5.249314 -2.894227 90.553009
5.250524 -2.865105 90.538589
5.254388 -2.835275 90.501320
5.253676 -2.805807 90.474907
5.253816 -2.776898 90.466141
5.255989 -2.746567 90.410477
5.255659 -2.717754 90.404030
5.255244 -2.688560 90.384659
5.253921 -2.659593 90.372589
5.255613 -2.630208 90.345947
5.254701 -2.600913 90.321785
5.256540 -2.571345 90.287567
5.259239 -2.542475 90.277359
5.260179 -2.512980 90.244431
5.260008 -2.484461 90.246231
5.260420 -2.455544 90.233429
5.262480 -2.426333 90.209412
5.262738 -2.397777 90.209457
5.264432 -2.368139 90.168312
5.264124 -2.339007 90.145653
5.266224 -2.310508 90.147118
5.270344 -2.280714 90.097565
5.270916 -2.252097 90.093765
5.273012 -2.222764 90.060860
5.271722 -2.194021 90.051270
5.271167 -2.165024 90.030899
5.270297 -2.136918 90.047501
5.271352 -2.108637 90.057091
5.274310 -2.079231 90.018326
5.273808 -2.050392 90.003334
4.174833 -5.760910 80.538383
4.178454 -5.735662 80.541756
4.175751 -5.712337 80.572205
4.171628 -5.688884 80.601135
4.168027 -5.663896 80.608475
4.168067 -5.640061 80.632416
4.166124 -5.614886 80.637314
4.164178 -5.587544 80.611008
4.160388 -5.564518 80.646980
4.159828 -5.540143 80.663689
4.155478 -5.516673 80.693741
4.152312 -5.493989 80.735626
4.161995 -5.464015 80.670441
4.160693 -5.442462 80.729431
4.158772 -5.415167 80.703415
4.160284 -5.392537 80.747025
4.155019 -5.368762 80.773758
4.156668 -5.343588 80.779686
4.154086 -5.319667 80.804657
4.149078 -5.297158 80.851395
4.140928 -5.270095 80.828758
4.143013 -5.244807 80.833313
4.136939 -5.224110 80.908936
4.134950 -5.197082 80.886833
4.134601 -5.169123 80.849983
4.125673 -5.147699 80.915382
4.120302 -5.125070 80.962440
4.946577 -5.778681 80.794769
4.942403 -5.726381 80.778046
4.948237 -5.699588 80.760567
4.951229 -5.678413 80.822815
4.950537 -5.651462 80.803055
4.943614 -5.625818 80.801819
4.947311 -5.576849 80.833130
4.930287 -5.456407 80.943130
4.932565 -5.408249 80.989029
4.933670 -5.382234 80.983185
5.769466 -2.879050 90.983414
5.770755 -2.850085 90.978195
5.769767 -2.821116 90.972694
5.770579 -2.791080 90.932350
5.768116 -2.760654 90.878365
5.771050 -2.731917 90.879379
5.770621 -2.702459 90.856186
5.770182 -2.672246 90.806877
5.772954 -2.643396 90.803268
5.773368 -2.613000 90.745956
5.776385 -2.583367 90.714142
5.779058 -2.554024 90.691895
5.779234 -2.524711 90.670197
5.776993 -2.495855 90.664589
5.779179 -2.466615 90.644806
5.780348 -2.436693 90.599174
5.779919 -2.408000 90.598679
5.779994 -2.378179 90.555206
5.784012 -2.349170 90.542061
5.784636 -2.319584 90.505981
5.778932 -2.291311 90.520836
5.782323 -2.261170 90.461464
5.785243 -2.233018 90.481094
5.785681 -2.203284 90.436310
5.784533 -2.174686 90.437531
5.783551 -2.146578 90.459465
5.783294 -2.116980 90.418396
5.781980 -2.088138 90.408890
5.781834 -2.058746 90.375031
5.923079 -1.113395 90.277512
5.924322 -1.084684 90.266678
5.919136 -1.056103 90.266144
5.919786 -1.027626 90.274841
5.919928 -0.998857 90.257645
5.919572 -0.970115 90.241982
5.922982 -0.941443 90.232132
5.925378 -0.912934 90.237755
5.924187 -0.884381 90.239151
5.925946 -0.855614 90.218193
5.927063 -0.827159 90.229790
5.929406 -0.798514 90.220749
5.931346 -0.770289 90.260254
5.931958 -0.741456 90.228851
5.930309 -0.712927 90.233330
5.927858 -0.684447 90.244621
5.929347 -0.655922 90.250854
5.928256 -0.627407 90.258926
5.927330 -0.599027 90.288269
5.924149 -0.570466 90.291580
5.924125 -0.541970 90.306602
5.922503 -0.513520 90.330986
5.921363 -0.485015 90.348099
5.916586 -0.456536 90.372360
5.917206 -0.428068 90.402573
5.917999 -0.399315 90.372681
5.914869 -0.370881 90.415466
5.916542 -0.342250 90.413704
5.911540 -0.313500 90.377480
5.913271 -0.285043 90.426773
5.912326 -0.256432 90.432457
5.908310 -0.227774 90.421547
-2.303947 4.368154 90.098267
-2.304604 4.396453 90.093185
-2.304583 4.426164 90.116898
-2.307838 4.455267 90.128006
-2.308728 4.485187 90.155380
-2.316244 4.516786 90.215927
-2.319028 4.547556 90.259285
-2.332774 4.580533 90.345520
-2.336239 4.611740 90.396088
-2.337807 4.641782 90.423347
-2.340304 4.671000 90.434311
-2.341428 4.701933 90.478119
-2.344838 4.732596 90.516235
-2.355332 4.763153 90.551819
-2.356808 4.794755 90.606827
-2.365970 4.826124 90.656708
-2.373384 4.858196 90.719131
-2.379030 4.889662 90.769592
-2.381407 4.919970 90.798088
-2.386608 4.951677 90.851944
-2.396505 4.984230 90.920525
-2.400820 5.013993 90.937790
-2.402013 5.043655 90.953033
-2.413882 5.079203 91.073578
-2.415263 5.108395 91.079498
-2.428566 5.142156 91.166290
-2.427583 5.172359 91.189438
-2.436085 5.203645 91.231277
4.646995 -3.559045 83.301170
4.642406 -3.539063 83.451675
4.638054 -3.513876 83.480827
4.033836 -3.801690 90.995323
4.028989 -3.774267 91.028625
4.037406 -3.742514 90.957336
4.043608 -3.710960 90.889786
4.043072 -3.681679 90.877220
4.041052 -3.652433 90.865318
4.037786 -3.623195 90.853401
4.039298 -3.590860 90.763092
4.043232 -3.561111 90.737228
4.044661 -3.532064 90.728943
4.047410 -3.501369 90.677841
4.053660 -3.470644 90.625175
4.053008 -3.441309 90.608139
4.054463 -3.411440 90.576691
4.055044 -3.381987 90.555801
4.056666 -3.351536 90.507660
4.061167 -3.321790 90.477859
4.059794 -3.291605 90.435463
4.060168 -3.262716 90.428253
4.062724 -3.232823 90.392860
4.065329 -3.203714 90.378960
4.064891 -3.173360 90.329361
4.070058 -3.143567 90.295013
4.068927 -3.114633 90.284851
4.074120 -3.084244 90.232010
4.071384 -3.055303 90.220871
4.074388 -3.025245 90.176300
4.073579 -2.967496 90.156357
4.925228 -3.554025 83.185730
4.931190 -3.527933 83.191406
4.935442 -3.499808 83.148911
4.290781 -3.809138 91.175507
4.294692 -3.776748 91.090492
4.294573 -3.745517 91.032288
4.301662 -3.714641 90.981903
4.300846 -3.684033 90.937317
4.301254 -3.652852 90.877762
4.302445 -3.623736 90.869049
4.303920 -3.592695 90.811554
4.304940 -3.562856 90.783760
4.307002 -3.532986 90.754700
4.308218 -3.502450 90.707947
4.311363 -3.471964 90.661713
4.312620 -3.441947 90.627060
4.313819 -3.412896 90.617455
4.314550 -3.383419 90.596268
4.315567 -3.353363 90.559105
4.316103 -3.323714 90.532372
4.320855 -3.292866 90.472290
4.321058 -3.264059 90.467667
4.324422 -3.235389 90.466827
4.323230 -3.206348 90.455444
4.327666 -3.175784 90.400589
4.328884 -3.146213 90.373215
4.331173 -3.117221 90.362122
4.332030 -3.086788 90.308685
4.332447 -3.057129 90.277069
4.332346 -3.028379 90.271950
4.334392 -2.999170 90.252945
4.334486 -2.969754 90.227272
-2.041015 4.369341 90.124474
-2.040645 4.397180 90.109772
-2.043439 4.426460 90.124649
-2.042532 4.454896 90.122231
-2.036185 4.482282 90.098793
-2.038548 4.511919 90.120529
-2.042316 4.540828 90.127533
-2.042470 4.570791 90.155289
-2.044104 4.599993 90.167755
-2.043698 4.631947 90.233665
-2.049651 4.664043 90.301552
-2.056844 4.693871 90.324890
-2.062703 4.724993 90.372719
-2.062115 4.754352 90.386475
-2.076638 4.788922 90.498474
-2.084536 4.821518 90.572075
-2.093450 4.853293 90.629486
-2.095741 4.883544 90.657959
-2.105264 4.914607 90.701012
-2.111440 4.946555 90.759827
-2.117872 4.977834 90.805779
-2.126187 5.010064 90.868416
-2.127960 5.040845 90.904251
-2.132610 5.071670 90.940430
-2.138829 5.104019 91.003395
-2.142643 5.135104 91.043228
-2.146499 5.167439 91.104652
-2.155020 5.199834 91.166443
3.994115 -1.102143 89.336601
3.994083 -1.073868 89.337433
3.996033 -1.045383 89.320442
3.995717 -1.017030 89.313995
3.997908 -0.988876 89.325256
3.996404 -0.960478 89.314423
3.999929 -0.931946 89.290131
3.999531 -0.903615 89.284164
3.998239 -0.875358 89.285370
4.000610 -0.846972 89.273117
4.006873 -0.790215 89.247772
4.000877 -0.762174 89.272949
4.000852 -0.733856 89.266594
3.998604 -0.705570 89.263733
4.000669 -0.676962 89.218384
4.003619 -0.648429 89.179382
4.001070 -0.592023 89.189377
4.002247 -0.563694 89.175186
3.998624 -0.535376 89.161293
3.997025 -0.507259 89.181152
3.998187 -0.478935 89.165138
3.997614 -0.450621 89.148941
3.997783 -0.422404 89.151001
4.001900 -0.394037 89.119843
4.003320 -0.365786 89.111801
4.005651 -0.337559 89.108803
4.003953 -0.309312 89.099365
4.004048 -0.281010 89.070938
4.002079 -0.252798 89.067253
4.003699 -0.224564 89.054688
4.524824 -3.565619 83.454086
4.527186 -3.543423 83.553612
4.519579 -3.519072 83.603363
3.894143 -3.772944 90.995674
3.898434 -3.743004 90.968124
3.900816 -3.713836 90.959068
3.900517 -3.681699 90.876587
3.900663 -3.652940 90.876785
3.907471 -3.621280 90.804359
3.910867 -3.592447 90.802147
3.914633 -3.561259 90.739960
3.914986 -3.531839 90.722092
3.915001 -3.500685 90.659050
3.914929 -3.471532 90.647202
3.915906 -3.442048 90.626465
3.917372 -3.411195 90.569031
3.920185 -3.381806 90.549835
3.921453 -3.352733 90.538818
3.926314 -3.322381 90.492821
3.927422 -3.292450 90.457558
3.929702 -3.262542 90.422302
3.928563 -3.233861 90.420731
3.930922 -3.202847 90.353340
3.932140 -3.173499 90.332146
3.933956 -3.144084 90.308640
3.938418 -3.114381 90.276398
3.940165 -3.084764 90.246025
3.942445 -3.055205 90.216835
3.943586 -3.026124 90.201294
3.940685 -2.997052 90.185699
3.946708 -2.966774 90.133278
3.251858 -4.302622 81.396667
3.252905 -4.276588 81.391602
3.248970 -4.251939 81.412933
3.246303 -4.227005 81.429047
3.237914 -4.204804 81.498291
3.237454 -4.180439 81.526230
3.230455 -4.156844 81.569595
3.228734 -4.132756 81.603806
3.220719 -4.110225 81.669334
3.221509 -4.085236 81.686615
3.218090 -4.061577 81.730850
3.210963 -4.036474 81.746376
3.205159 -4.014798 81.831940
3.200543 -3.991728 81.890045
3.190764 -3.968560 81.946846
3.186114 -3.945624 82.009247
3.182740 -3.921966 82.057404
3.169574 -3.899567 82.132629
3.165499 -3.874278 82.147675
3.152775 -3.824158 82.188156
3.136074 -3.799826 82.224487
3.116934 -3.766175 82.058319
3.105555 -3.743183 82.123703
3.053223 -3.878366 91.437012
3.056756 -3.848515 91.415543
3.059499 -3.820681 91.442001
3.063825 -3.792958 91.471542
3.066982 -3.762603 91.437607
3.067522 -3.733531 91.434525
3.073890 -3.700912 91.343910
3.073118 -3.671843 91.340111
3.076367 -3.641746 91.310524
3.077688 -3.611934 91.287628
3.080884 -3.580136 91.213806
3.081321 -3.550405 91.191826
3.083236 -3.518927 91.124283
3.087993 -3.489421 91.107132
3.089994 -3.458511 91.052734
3.096320 -3.427082 90.983658
3.093717 -3.397597 90.965363
3.097029 -3.367325 90.925568
3.097859 -3.337317 90.892258
3.102676 -3.305458 90.807587
3.104864 -3.276083 90.790215
3.106819 -3.246829 90.775909
3.108576 -3.215626 90.706367
3.111261 -3.185913 90.678001
3.110833 -3.157089 90.674629
3.112229 -3.126012 90.605904
3.112994 -3.097488 90.610596
3.115473 -3.068798 90.610466
3.123519 -3.037575 90.534920
3.121782 -3.008568 90.524506
3.127956 -2.978570 90.483856
5.346179 -4.330971 81.947403
5.343313 -4.309242 82.027420
5.326908 -4.259910 82.077202
5.326633 -4.234082 82.080093
5.325279 -4.210030 82.117661
5.316047 -4.186568 82.167191
5.313700 -4.161394 82.183609
5.303722 -4.135437 82.184616
5.301506 -4.110672 82.209549
5.290492 -4.087527 82.267303
5.288584 -4.062952 82.296921
5.286465 -4.037327 82.305542
5.278656 -4.015705 82.396301
5.279275 -3.990175 82.407661
5.270416 -3.964755 82.421402
5.262507 -3.942117 82.493515
5.261952 -3.917119 82.516937
5.255208 -3.892820 82.555458
5.250035 -3.868257 82.588875
5.243498 -3.847052 82.694885
5.235971 -3.820739 82.691849
5.228382 -3.797477 82.755234
5.219546 -3.772525 82.782425
5.214352 -3.748674 82.834343
5.208708 -3.727053 82.936577
5.198794 -3.703822 83.004173
5.193952 -3.679608 83.050598
5.193579 -3.655243 83.094315
5.188159 -3.629875 83.115654
5.191210 -3.606206 83.176544
5.190613 -3.580284 83.185974
-2.179541 4.369619 90.129318
-2.184227 4.399606 90.158585
-2.180546 4.426542 90.125404
-2.179504 4.455631 90.136200
-2.181645 4.484064 90.133652
-2.185445 4.515236 90.185822
-2.177984 4.542643 90.162682
-2.183903 4.575490 90.247047
-2.190915 4.606033 90.285187
-2.194781 4.636907 90.329330
-2.189107 4.666334 90.344986
-2.196385 4.698354 90.410233
-2.199122 4.728700 90.442703
-2.207986 4.760799 90.508064
-2.212544 4.790394 90.525398
-2.229986 4.825030 90.637070
-2.232146 4.852874 90.620720
-2.241212 4.887127 90.723480
-2.245853 4.918184 90.766083
-2.249038 4.948657 90.797455
-2.256226 4.980382 90.851303
-2.262394 5.012103 90.904465
-2.268955 5.043525 90.951630
-2.272234 5.074208 90.985001
-2.277162 5.105406 91.027176
-2.284623 5.137232 91.079971
-2.291993 5.169640 91.142456
-2.292458 5.199278 91.155731
4.050197 -4.302473 81.399094
4.050756 -4.280366 81.468735
4.046141 -4.250834 81.397049
4.039226 -4.229757 81.487320
4.034598 -4.205424 81.515602
4.032048 -4.180944 81.541397
4.027516 -4.156801 81.574104
4.020351 -4.133100 81.615929
4.013766 -4.108137 81.633209
4.015128 -4.082974 81.646797
4.008359 -4.059662 81.697701
4.004487 -4.038586 81.794571
4.003002 -4.012655 81.793770
3.994834 -3.990767 81.875824
3.989868 -3.966114 81.901901
3.985602 -3.945279 82.007675
3.972407 -3.921934 82.062279
3.967062 -3.897301 82.090546
3.955289 -3.877103 82.213135
3.944973 -3.854723 82.290855
3.937089 -3.832986 82.383469
3.929836 -3.810585 82.462982
3.919799 -3.786982 82.517365
3.915913 -3.763598 82.577385
3.902873 -3.741042 82.656448
3.900542 -3.715525 82.670853
3.055501 -3.917969 87.785492
3.916105 -3.677984 83.601883
3.912012 -3.652645 83.627602
3.907510 -3.630873 83.735947
3.095364 -3.819184 88.718536
3.946035 -2.938215 90.132492
3.948258 -2.908583 90.098495
3.949799 -2.878742 90.057251
3.948639 -2.849747 90.041924
3.952536 -2.820172 90.007782
3.951903 -2.762764 89.994095
3.952389 -2.733643 89.973312
3.952380 -2.705081 89.970734
3.952665 -2.675845 89.945374
3.951296 -2.646453 89.914192
3.951298 -2.617370 89.892982
3.952941 -2.589568 89.915749
3.956644 -2.560104 89.880737
3.959053 -2.531104 89.861374
3.960005 -2.502120 89.842117
3.961092 -2.473082 89.820526
3.960537 -2.443940 89.794540
3.961063 -2.415603 89.797897
3.961448 -2.386601 89.776306
3.963964 -2.357316 89.743469
3.962567 -2.328559 89.730118
3.964650 -2.299431 89.702011
3.969370 -2.270563 89.683525
3.968906 -2.242073 89.679604
3.972572 -2.213483 89.671585
3.973384 -2.184597 89.651176
3.973435 -2.156141 89.648087
3.976579 -2.127061 89.618713
3.977407 -2.098372 89.605209
3.976340 -2.070207 89.613945
3.976939 -2.041458 89.597351
5.840565 -4.354694 82.400681
5.837005 -4.329957 82.426147
5.841878 -4.304466 82.437546
5.835180 -4.280877 82.485626
5.820623 -4.228494 82.482086
5.810943 -4.208311 82.598114
5.809099 -4.184078 82.635742
5.806424 -4.158934 82.655746
5.795850 -4.132176 82.643692
5.791269 -4.107085 82.665054
5.787174 -4.082956 82.706177
5.782588 -4.058443 82.740021
5.773281 -4.035503 82.806519
5.770119 -4.010755 82.836624
